1551495.363634749316 -3941660.175580242649 4752355.303618658334 0 0
1551495.394253351726 -3941660.087754298933 4752355.279954732396 0 0
1551495.393447322771 -3941660.081317250151 4752355.323441421613 0 0
1551495.363004154759 -3941660.042169160675 4752355.326935850084 0 0
1551495.398024470778 -3941660.024458009284 4752355.319495957345 0 0
1551495.401214256417 -3941660.036863621324 4752355.452241419815 0 0
1551495.386613275157 -3941659.989870412741 4752355.495897967368 0 0
1551495.437455124920 -3941659.988020354416 4752355.599363301881 0 0
1551495.379086018540 -3941659.948318375275 4752355.666121964343 0 0
1551495.414858404780 -3941659.882777723018 4752355.693396175280 0 0
1551495.435577393277 -3941659.882321860641 4752355.820615788922 0 0
1551495.417283480987 -3941659.861054314300 4752355.847460783087 0 0
1551495.434008006938 -3941659.863158688881 4752355.894495697692 0 0
1551495.422880842816 -3941659.893068735488 4752355.955270615406 0 0
1551495.431224737316 -3941659.938481756486 4752356.042885153554 0 0
1551495.413858356653 -3941659.943269573618 4752356.046604427509 0 0
1551495.360575129744 -3941659.959429334383 4752356.059782474302 0 0
1551495.342082733056 -3941659.979295547586 4752356.047672625631 0 0
1551495.318913887255 -3941660.094100897666 4752356.098476235755 0 0
1551495.351355957333 -3941660.097028289456 4752356.071728069335 0 0
1551495.317678337917 -3941659.912632951979 4752356.101466254331 0 0
1551495.293948541395 -3941659.917983740102 4752356.104288995266 0 0
1551495.243515421636 -3941659.946995484177 4752356.102579916827 0 0
1551495.225846814457 -3941659.970618792344 4752356.083009356633 0 0
1551495.186744661070 -3941660.004917823710 4752356.067431947216 0 0
1551495.151014729869 -3941660.012810451910 4752356.078760427423 0 0
1551495.114715623902 -3941659.970188661478 4752355.990359901451 0 0
1551495.103485515807 -3941659.981392005924 4752355.980250585824 0 0
1551495.017041868763 -3941659.948424840346 4752355.912871980108 0 0
1551494.995482946048 -3941659.944252551068 4752355.922245812602 0 0
1551494.982953596627 -3941659.926201283000 4752355.945626878180 0 0
1551494.988498776685 -3941659.820437708404 4752355.898182923906 0 0
1551494.991820387775 -3941659.754032539669 4752355.843421328813 0 0
1551494.962012547767 -3941659.746924886014 4752355.820402564481 0 0
1551494.954682718031 -3941659.737080705352 4752355.829094391316 0 0
1551494.951277089072 -3941659.798683246132 4752355.887141247280 0 0
1551494.952504209941 -3941659.837921958417 4752355.881011370569 0 0
1551494.932514213957 -3941659.887733699754 4752355.994328760542 0 0
1551494.960908653447 -3941659.800470803399 4752355.916659560986 0 0
1551494.936723925406 -3941659.852738386020 4752355.873195320368 0 0
1551494.898229648126 -3941659.913634034339 4752355.864730003290 0 0
1551494.879868244985 -3941659.983835306484 4752355.932356185280 0 0
1551494.898219825234 -3941659.989493443631 4752355.916734779254 0 0
1551494.901277258527 -3941659.738217188977 4752355.836794990115 0 0
1551494.880570905283 -3941659.740608303342 4752355.781872266904 0 0
1551494.843655296834 -3941659.724083502311 4752355.742243711837 0 0
1551494.782244149130 -3941659.627137481701 4752355.687277063727 0 0
1551494.824598990614 -3941659.592800568789 4752355.736458334140 0 0
1551494.881601096829 -3941659.546086622402 4752355.743020066991 0 0
1551494.913808939280 -3941659.548695905600 4752355.795639696531 0 0
1551494.907687841449 -3941659.551105259452 4752355.795639696531 0 0
1551494.882787888171 -3941659.518171329051 4752355.765633484349 0 0
1551494.904791206587 -3941659.576618593652 4752355.836162069812 0 0
1551494.910018767929 -3941659.589899503160 4752355.831271903589 0 0
1551494.931760894833 -3941659.627811945044 4752355.858200554736 0 0
1551494.875149229309 -3941659.588123463094 4752355.859208809212 0 0
1551494.963139040861 -3941659.611289478838 4752355.929986424744 0 0
1551494.988878401928 -3941659.562679922208 4752355.961687021889 0 0
1551495.005206298782 -3941659.527984977700 4752355.987169551663 0 0
1551495.041984790470 -3941659.589577043429 4752356.059376661666 0 0
1551495.004295018502 -3941659.558146001305 4752356.028772071004 0 0
1551495.033483868232 -3941659.643351435196 4752356.081621980295 0 0
1551495.058971603168 -3941659.679843382444 4752356.106502934359 0 0
1551494.978219941957 -3941659.639274244197 4752356.046307669021 0 0
1551495.023709774483 -3941659.669764187187 4752356.093763235956 0 0
1551495.027461509220 -3941659.622867282946 4752356.101501198485 0 0
1551495.069234775146 -3941659.666547505185 4752356.151542998850 0 0
1551495.067511603935 -3941659.657679609023 4752356.141510269605 0 0
1551495.062084902544 -3941659.629752353299 4752356.109914661385 0 0
1551494.999021422816 -3941659.589051902760 4752356.079661917873 0 0
1551495.018889929866 -3941659.596002793405 4752356.058064290322 0 0
1551494.971499708015 -3941659.578784211073 4752355.961672359146 0 0
1551494.990896591917 -3941659.594313135371 4752355.931639241055 0 0
1551494.938441634178 -3941659.444809143897 4752355.814844653942 0 0
1551494.951506423997 -3941659.446385646705 4752355.802490527742 0 0
1551494.957606952172 -3941659.443984389771 4752355.802490527742 0 0
1551494.951795695350 -3941659.414556739386 4752355.779468133114 0 0
1551494.901220273226 -3941659.366562880110 4752355.765138709918 0 0
1551494.917211309308 -3941659.365652917884 4752355.754789210856 0 0
1551494.940493537113 -3941659.364538291004 4752355.739929671399 0 0
1551494.940493537113 -3941659.364538291004 4752355.739929671399 0 0
1551494.960962546989 -3941659.399216304999 4752355.769935883582 0 0
1551494.924566829111 -3941659.365273964591 4752355.750068057328 0 0
1551494.991662975634 -3941659.288199911360 4752355.717879284173 0 0
1551495.008579093032 -3941659.221761743538 4752355.701915603131 0 0
1551495.040701524122 -3941659.241099442821 4752355.740781070665 0 0
1551495.022006302141 -3941659.201623892877 4752355.714152140543 0 0
1551495.024822499137 -3941659.237125800457 4752355.755403926596 0 0
1551494.994846515590 -3941659.240339782555 4752355.807030756027 0 0
1551495.041682769777 -3941659.239317149390 4752355.811529029161 0 0
1551495.008565508993 -3941659.217443298548 4752355.853357366286 0 0
1551495.044009830104 -3941659.179809155408 4752355.862554772757 0 0
1551495.046565503348 -3941659.129379943479 4752355.900204646401 0 0
1551495.039708074415 -3941659.173040696885 4752355.999085992575 0 0
1551495.027161321137 -3941659.186690574512 4752355.991909115575 0 0
1551495.037245877553 -3941659.238590235356 4752356.011094619520 0 0
1551495.007754466496 -3941659.210452008992 4752355.978626353666 0 0
1551495.009929613909 -3941659.240953679662 4752356.021242940798 0 0
1551494.924932706170 -3941659.130128898658 4752355.953106622212 0 0
1551494.926941379439 -3941659.095721231773 4752355.975145420991 0 0
1551494.916541530518 -3941658.987234174274 4752355.931602527387 0 0
1551494.909912030213 -3941658.883132285438 4752355.879331815988 0 0
1551494.930187924765 -3941658.910953139421 4752355.915049987845 0 0
1551494.909542870475 -3941658.830887469463 4752355.851972715929 0 0
1551494.919323782669 -3941658.822500684764 4752355.847598223947 0 0
1551494.871744492557 -3941658.718947519548 4752355.759848330170 0 0
1551494.867746322183 -3941658.655645307153 4752355.735830524936 0 0
1551494.912517119432 -3941658.660796444397 4752355.791399438865 0 0
1551494.887553286040 -3941658.596425470430 4752355.744573526084 0 0
1551494.866132101277 -3941658.547533563804 4752355.679572207853 0 0
1551494.872137593571 -3941658.593827940524 4752355.631115603261 0 0
1551494.822167710168 -3941658.514190367423 4752355.502863889560 0 0
1551494.855794317555 -3941658.510279207025 4752355.402682611719 0 0
1551494.844687415985 -3941658.543850513641 4752355.386776782572 0 0
1551494.910236762371 -3941658.629525216762 4752355.417213459499 0 0
1551494.822364026913 -3941658.592814846896 4752355.355624921620 0 0
1551494.834390459582 -3941658.547121046111 4752355.284174283966 0 0
1551494.811772428453 -3941658.579955841880 4752355.351132712327 0 0
1551494.843577227555 -3941658.586806633510 4752355.351156424731 0 0
1551494.859857415315 -3941658.587819764391 4752355.337482516654 0 0
1551494.853463088162 -3941658.605234105606 4752355.325209122151 0 0
1551494.839999362594 -3941658.686474329326 4752355.333870305680 0 0
1551494.746908100555 -3941658.722769178916 4752355.278096843511 0 0
1551494.771251464495 -3941658.832064689137 4752355.326782486401 0 0
1551494.700411809376 -3941658.877660117112 4752355.224161040038 0 0
1551494.700307116145 -3941658.950850130990 4752355.228606371209 0 0
1551494.632501260843 -3941659.019755301997 4752355.197820367292 0 0
1551494.622169188689 -3941659.024845808744 4752355.198399618268 0 0
1551494.658970236080 -3941659.016800865531 4752355.260632084683 0 0
1551494.751515725395 -3941658.828512793407 4752355.179928355850 0 0
1551494.838726090500 -3941658.768742571585 4752355.264856654219 0 0
1551494.860841310816 -3941658.697283743881 4752355.189848453738 0 0
1551494.851408621762 -3941658.697150136344 4752355.116586624645 0 0
1551494.759879250778 -3941658.863727903925 4752355.157346115448 0 0
1551494.757865965599 -3941658.885423676576 4752355.134037768468 0 0
1551494.726562923053 -3941658.987878716085 4752355.120498446748 0 0
1551494.669995445758 -3941658.968230004422 4752355.165675686672 0 0
1551494.671969943214 -3941658.866891734302 4752355.182259368710 0 0
1551494.764088761061 -3941658.833106680773 4752355.231670549139 0 0
1551494.647971422877 -3941658.842799628619 4752355.211292137392 0 0
1551494.608668133616 -3941658.925229529385 4752355.140960793942 0 0
1551494.556336789392 -3941659.015228817705 4752355.145089560188 0 0
1551494.515441361116 -3941658.998977486975 4752355.183653866872 0 0
1551494.560604427010 -3941659.064824436791 4752355.243425910361 0 0
1551494.545325431041 -3941658.847106889356 4752355.129466537386 0 0
1551494.506427883171 -3941658.621694125235 4752354.987228529528 0 0
1551494.553266479401 -3941658.615170248318 4752354.945497800596 0 0
1551494.506360671949 -3941658.580925868358 4752354.922200347297 0 0
1551494.481891477713 -3941658.546352999751 4752354.866193526424 0 0
1551494.468471633736 -3941658.481050107628 4752354.740974182263 0 0
1551494.441553655546 -3941658.399737935979 4752354.579615903087 0 0
1551494.420718590729 -3941658.313297208864 4752354.503990075551 0 0
1551494.419601601548 -3941658.310459435917 4752354.506690222770 0 0
1551494.432489692234 -3941658.186057468411 4752354.471437691711 0 0
1551494.477331408067 -3941658.107369290199 4752354.470225768164 0 0
1551494.430685472907 -3941657.985897499602 4752354.443224613555 0 0
1551494.441753339488 -3941657.911610302981 4752354.370596949011 0 0
1551494.435927711194 -3941657.904607497156 4752354.362992103212 0 0
1551494.413342259824 -3941657.897044307087 4752354.315064486116 0 0
1551494.412280203775 -3941657.897462347522 4752354.315064486116 0 0
1551494.371307169087 -3941657.817560933996 4752354.283588823862 0 0
1551494.352781219175 -3941657.741781249642 4752354.329214755446 0 0
1551494.344240661012 -3941657.721988687292 4752354.351016716100 0 0
1551494.359394794097 -3941657.653697583824 4752354.464693092741 0 0
1551494.295682388591 -3941657.520528521854 4752354.491155076772 0 0
1551494.215455264086 -3941657.451172280591 4752354.487092602067 0 0
1551494.207801357144 -3941657.486929936334 4752354.531147927046 0 0
1551494.183008095017 -3941657.448271803092 4752354.492357605137 0 0
1551494.142708181404 -3941657.426984293852 4752354.521278367378 0 0
1551494.112169801956 -3941657.360895255115 4752354.494881344959 0 0
1551494.113693210762 -3941657.287434830796 4752354.473042739555 0 0
1551494.107438782463 -3941657.226546785794 4752354.433398579247 0 0
1551494.130929370411 -3941657.220492949244 4752354.426684102044 0 0
1551494.093661616324 -3941657.200784077402 4752354.373688765801 0 0
1551494.074876327300 -3941657.195155861322 4752354.335266245529 0 0
1551494.090955037158 -3941657.233310191892 4752354.363832165487 0 0
1551494.057214736938 -3941657.203855956439 4752354.333825947717 0 0
1551494.070063310675 -3941657.240069148596 4752354.365038569085 0 0
1551494.055753719062 -3941657.232806517277 4752354.375662310980 0 0
1551494.023785149911 -3941657.121725340374 4752354.324198228307 0 0
1551494.023271336686 -3941657.095304992050 4752354.375028694049 0 0
1551494.034954699222 -3941657.046768989414 4752354.336820027791 0 0
1551494.055055509321 -3941656.967477444559 4752354.333999856375 0 0
1551494.055039845873 -3941656.943820512388 4752354.322241210379 0 0
1551494.057600924978 -3941656.892016895115 4752354.373728660867 0 0
1551494.064127382124 -3941656.768079853617 4752354.289913862012 0 0
1551494.076019607950 -3941656.779068370350 4752354.339565412141 0 0
1551494.057678024285 -3941656.801057040691 4752354.398538381793 0 0
1551494.064495437313 -3941656.828549331520 4752354.438752781600 0 0
1551494.019109995337 -3941656.789353598375 4752354.425667707808 0 0
1551494.063105696812 -3941656.841842143331 4752354.493465810083 0 0
1551494.003228928428 -3941656.820972751360 4752354.496214670129 0 0
1551493.955084847985 -3941656.867506711278 4752354.557625729591 0 0
1551493.940712059848 -3941656.888866506051 4752354.602603734471 0 0
1551493.959845297737 -3941656.968769529834 4752354.556629877537 0 0
1551493.967872810550 -3941657.010580851231 4752354.566635480151 0 0
1551493.963658533059 -3941657.737555035390 4752354.095772050321 0 0
1551493.909347598907 -3941657.203139187768 4752354.720262528397 0 0
1551493.884234436555 -3941657.169737946242 4752354.692126944661 0 0
1551493.908612662693 -3941657.196084846742 4752354.655543050729 0 0
1551493.917218251387 -3941657.232338708825 4752354.691178537905 0 0
1551493.863987250952 -3941657.218326962087 4752354.674687070772 0 0
1551493.814286155393 -3941657.290361847263 4752354.756952075288 0 0
1551493.795800083783 -3941657.326582223177 4752354.718177639879 0 0
1551493.770292972913 -3941657.373266921379 4752354.763329169713 0 0
1551493.774514087941 -3941657.448935608380 4752354.823054980487 0 0
1551493.715339377057 -3941657.428668190725 4752354.738435170613 0 0
1551493.707591865677 -3941657.448897402268 4752354.646011589095 0 0
1551493.653049301589 -3941657.468789131846 4752354.584803420119 0 0
1551493.639980549226 -3941657.482583942357 4752354.578710967675 0 0
1551493.532457049238 -3941657.468931483105 4752354.562442297116 0 0
1551493.517116764560 -3941657.471873482689 4752354.557852989063 0 0
1551493.454061405268 -3941657.462245014496 4752354.598093206994 0 0
1551493.424336629687 -3941657.179636613932 4752354.561073271558 0 0
1551493.446011705557 -3941657.052592402790 4752354.540849534795 0 0
1551493.461814192124 -3941657.113216437865 4752354.668102177791 0 0
1551493.401763368864 -3941657.087497338653 4752354.643539176323 0 0
1551493.355873500928 -3941657.107036446687 4752354.648441271856 0 0
1551493.351098387269 -3941657.142130978405 4752354.614207351580 0 0
1551493.383630827768 -3941657.238523893990 4752354.654609177262 0 0
1551493.339781804476 -3941657.168708017562 4752354.595652666874 0 0
1551493.324912537821 -3941657.166573657654 4752354.602171245962 0 0
1551493.306838240940 -3941657.159082892817 4752354.614046929404 0 0
1551493.299454486463 -3941657.146728938911 4752354.610191041604 0 0
1551493.272230541566 -3941657.061822422314 4752354.571835696697 0 0
1551493.271507969126 -3941657.112771066837 4752354.682211476378 0 0
1551493.246290507494 -3941657.074715949129 4752354.635244923644 0 0
1551493.236882128753 -3941657.069559033960 4752354.577481274493 0 0
1551493.223898425233 -3941657.087322418578 4752354.566500567831 0 0
1551493.212836011080 -3941657.095992259216 4752354.562945192680 0 0
1551493.204324500868 -3941657.102465426549 4752354.560372351669 0 0
1551493.145079619484 -3941657.179385831114 4752354.607043076307 0 0
1551493.151738374960 -3941657.203041208908 4752354.614707249217 0 0
1551493.158917546039 -3941657.217597159091 4752354.617525404319 0 0
1551493.109541937709 -3941657.142038694583 4752354.573497353122 0 0
1551493.108874172671 -3941657.140228734352 4752354.575186508708 0 0
1551493.135958443629 -3941657.080947587732 4752354.605064097792 0 0
1551493.154305828037 -3941657.112644209992 4752354.639139020815 0 0
1551493.186580898939 -3941657.007022873964 4752354.663762883283 0 0
1551493.191114271525 -3941656.982907436322 4752354.655844270252 0 0
1551493.169275447959 -3941656.841135784984 4752354.663437521085 0 0
1551493.201957619051 -3941656.771950311027 4752354.700782897882 0 0
1551493.149538474856 -3941656.705468385015 4752354.730018749833 0 0
1551493.179042783799 -3941656.680593874771 4752354.691956875846 0 0
1551493.164163312642 -3941656.640071731992 4752354.687995265238 0 0
1551493.181544241728 -3941656.673429627903 4752354.720395741984 0 0
1551493.157929954352 -3941656.635785908438 4752354.692769754678 0 0
1551493.136502357898 -3941656.617740053218 4752354.717182965949 0 0
1551493.156805311795 -3941656.648274370935 4752354.750192367472 0 0
1551493.094572767848 -3941656.569651105441 4752354.721795463935 0 0
1551493.152728572721 -3941656.554377702996 4752354.693795667961 0 0
1551493.154696932761 -3941656.551482889801 4752354.695208476856 0 0
1551493.144663966261 -3941656.493909074459 4752354.680911001749 0 0
1551493.183951009531 -3941656.500609246083 4752354.727287607267 0 0
1551493.201018403750 -3941656.387419905514 4752354.747031601146 0 0
1551493.174854779383 -3941656.277821880300 4752354.715370028280 0 0
1551493.185006651562 -3941656.276610182598 4752354.738722489215 0 0
1551493.100533106830 -3941656.178281217813 4752354.702766663395 0 0
1551493.084760434460 -3941656.157446655445 4752354.722959053703 0 0
1551493.110034788260 -3941656.127147726249 4752354.696340178140 0 0
1551493.067709463183 -3941656.055987117812 4752354.671013105661 0 0
1551493.084079262801 -3941656.043681534939 4752354.670277405530 0 0
1551493.104994988069 -3941656.067666114774 4752354.708948641084 0 0
1551493.096925378777 -3941655.995813641232 4752354.705548015423 0 0
1551493.130883719539 -3941656.007700956892 4752354.750021814369 0 0
1551493.115556923207 -3941655.912121999077 4752354.779155736789 0 0
1551493.171787257772 -3941655.922289018519 4752354.809734710492 0 0
1551493.143688673852 -3941655.852797423024 4752354.823374737054 0 0
1551493.208463137504 -3941655.868226891384 4752354.845836777240 0 0
1551493.258609628072 -3941655.842897829134 4752354.864067643881 0 0
1551493.218527544057 -3941655.775192479603 4752354.806357876398 0 0
1551493.188093479490 -3941655.795243952889 4752354.856390951201 0 0
1551493.188093479490 -3941655.795243952889 4752354.856390951201 0 0
1551493.209037316497 -3941655.794049820863 4752354.842833631672 0 0
1551493.235401567770 -3941655.778526632115 4752354.839656370692 0 0
1551493.235567871248 -3941655.778072676621 4752354.839976437390 0 0
1551493.209451491944 -3941655.792728670873 4752354.895820550621 0 0
1551493.248440977884 -3941655.798534918576 4752354.889052473009 0 0
1551493.265017649159 -3941655.852380419150 4752354.976957528852 0 0
1551493.283695582068 -3941655.800672671758 4752354.946360627189 0 0
1551493.268284325721 -3941655.829857752658 4752354.996443866752 0 0
1551493.331559259677 -3941655.918619791046 4752355.072519539855 0 0
1551493.315448357258 -3941655.908097101375 4752355.046095333993 0 0
1551493.369884349871 -3941655.984540659934 4752355.100883192383 0 0
1551493.335830209078 -3941656.016198761761 4752355.127127436921 0 0
1551493.358847835800 -3941656.038675761316 4752355.125912661664 0 0
1551493.389297790825 -3941656.081825166009 4752355.141004483216 0 0
1551493.359317970695 -3941656.182157976087 4752355.172943762504 0 0
1551493.364346789429 -3941656.190984841902 4752355.173771415837 0 0
1551493.373078909237 -3941656.206313240808 4752355.175217460841 0 0
1551493.395973950159 -3941656.296186259016 4752355.191199998371 0 0
1551493.387948897900 -3941656.369573828299 4752355.261618922465 0 0
1551493.400200147880 -3941656.385222599842 4752355.221303420141 0 0
1551493.420262565603 -3941656.428716857452 4752355.251880323514 0 0
1551493.424010187853 -3941656.445045164786 4752355.264695740305 0 0
1551493.420977219939 -3941656.466781308409 4752355.280955269001 0 0
1551493.424761990318 -3941656.464987433515 4752355.281465150416 0 0
1551493.391114153666 -3941656.477722869255 4752355.296553713270 0 0
1551493.468607581453 -3941656.537864484359 4752355.323146713898 0 0
1551493.495884482050 -3941656.581066484563 4752355.361285854131 0 0
1551493.492683067918 -3941656.539075663313 4752355.332145151682 0 0
1551493.513644206570 -3941656.573398654349 4752355.362422340550 0 0
1551493.525996946730 -3941656.554379140958 4752355.101229690947 0 0
1551493.550371059682 -3941656.597716131713 4752355.137471838854 0 0
1551493.507356108166 -3941656.598457866814 4752355.158457696438 0 0
1551493.547853918979 -3941656.613710634876 4752355.156055986881 0 0
1551493.528675680747 -3941656.575550246052 4752355.121567770839 0 0
1551493.517986926716 -3941656.518867580220 4752355.073022132739 0 0
1551493.533908311045 -3941656.543968458194 4752355.115234529600 0 0
1551493.507422567811 -3941656.507082725409 4752355.091451008804 0 0
1551493.485812806292 -3941656.497188254260 4752355.113491114229 0 0
1551493.494893743191 -3941656.457444287371 4752355.141352851875 0 0
1551493.537350896280 -3941656.359624199569 4752355.092822852544 0 0
1551493.557507781545 -3941656.386807576288 4752355.119335577823 0 0
1551493.556819626130 -3941656.311933965888 4752355.055679013953 0 0
1551493.561506472761 -3941656.308784328867 4752355.041794970632 0 0
1551493.609020521166 -3941656.322222088929 4752354.879256106913 0 0
1551493.592913466971 -3941656.286179675255 4752354.838159542531 0 0
1551493.670691935811 -3941656.318769496400 4752354.719249697402 0 0
1551493.656188528519 -3941656.288792139851 4752354.683504113927 0 0
1551493.693285344401 -3941656.318037072197 4752354.655295857228 0 0
1551493.675145923393 -3941656.222793590277 4752354.475134924985 0 0
1551493.731940427097 -3941656.170505690388 4752354.355701928958 0 0
1551493.777609524783 -3941656.170054459013 4752354.347872749902 0 0
1551493.809887696058 -3941656.162263784558 4752354.351936073974 0 0
1551493.897236603545 -3941656.160229909234 4752354.310564988293 0 0
1551493.921659176471 -3941656.195445965044 4752354.338845860213 0 0
1551493.899632204557 -3941656.161477975082 4752354.310518397018 0 0
1551493.935601582984 -3941656.172479152214 4752354.288032231852 0 0
1551493.936523320153 -3941656.174820875283 4752354.285804077052 0 0
1551493.939449260011 -3941656.206045114435 4752354.259130877443 0 0
1551493.939440401504 -3941656.206257164478 4752354.258959050290 0 0
1551493.959109673742 -3941656.282096107490 4752354.316084898077 0 0
1551493.949372177478 -3941656.274682097137 4752354.319171711802 0 0
1551493.949595413171 -3941656.260484292172 4752354.344553280622 0 0
1551494.001797678880 -3941656.263451780193 4752354.386769159697 0 0
1551493.989293978317 -3941656.227831059601 4752354.353056386113 0 0
1551493.976362035377 -3941656.282233746257 4752354.451013905928 0 0
1551493.985749115935 -3941656.286918211263 4752354.452030959539 0 0
1551493.995470449561 -3941656.299836201128 4752354.430819195695 0 0
1551493.959347980097 -3941656.453073502518 4752354.451637710445 0 0
1551493.927967542782 -3941656.582081281580 4752354.418955702335 0 0
1551493.909210996237 -3941656.646963370498 4752354.502625287510 0 0
1551493.886899986304 -3941656.615895498544 4752354.480734472163 0 0
1551493.951686244691 -3941656.373244923539 4752354.525351751596 0 0
1551493.979990567546 -3941656.252221338451 4752354.475014731288 0 0
1551493.992893337738 -3941656.275183463935 4752354.483027670532 0 0
1551493.912890690379 -3941656.223587384913 4752354.393758157268 0 0
1551493.936854681466 -3941656.273894698825 4752354.402850357816 0 0
1551493.839273056481 -3941656.306528601795 4752354.353347828612 0 0
1551493.847243863856 -3941656.331323109567 4752354.319876715541 0 0
1551493.818187342258 -3941656.327786881942 4752354.263369771652 0 0
1551493.798404933419 -3941656.244531394448 4752354.278106038459 0 0
1551493.799352908274 -3941656.244065398350 4752354.277940560132 0 0
1551493.803525762865 -3941656.175631076563 4752354.306514123455 0 0
1551493.805666027358 -3941656.171028593555 4752354.302462451160 0 0
1551493.840538804187 -3941656.139515973162 4752354.279239644296 0 0
1551493.770011555171 -3941656.246629764326 4752354.212291544303 0 0
1551493.643899902934 -3941656.338105374016 4752354.124041740783 0 0
1551493.662125015864 -3941656.539348730352 4752354.134957848117 0 0
1551493.622494037962 -3941656.531830101740 4752354.094997731969 0 0
1551493.695465950062 -3941656.596523781307 4752354.217692056671 0 0
1551493.731070313370 -3941656.521881533787 4752354.201072725467 0 0
1551493.741754439659 -3941656.574964046944 4752354.150918061845 0 0
1551493.754164556041 -3941656.747727181762 4752354.204876886681 0 0
1551493.758144482505 -3941656.739752314985 4752354.198040342890 0 0
1551493.745916261803 -3941656.693915413227 4752354.152920995839 0 0
1551493.783757388825 -3941656.619366046041 4752354.102663783357 0 0
1551493.803421025630 -3941656.601599953603 4752354.110923958011 0 0
1551493.820745752426 -3941656.579689598642 4752354.125175786205 0 0
1551493.858773127198 -3941656.599043247290 4752354.160294338129 0 0
1551493.855402715970 -3941656.599259537645 4752354.162159074098 0 0
1551493.814987540478 -3941656.573825187515 4752354.130055623129 0 0
1551493.775485610124 -3941656.590381308924 4752354.060876443051 0 0
1551493.761079069227 -3941656.599051340017 4752354.055803023279 0 0
1551493.730137987994 -3941656.598245787900 4752354.077794683166 0 0
1551493.741689077811 -3941656.553194221575 4752354.037259239703 0 0
1551493.761752110440 -3941656.470934462734 4752354.034564356320 0 0
1551493.779322157847 -3941656.392396607436 4752354.024416570552 0 0
1551493.817775508156 -3941656.399812418502 4752354.070601607673 0 0
1551493.812393753789 -3941656.342422578018 4752354.055489879102 0 0
1551493.829106837744 -3941656.366369233467 4752354.096104110591 0 0
1551493.777771291323 -3941656.333067689091 4752354.079251556657 0 0
1551493.780941734556 -3941656.314639981836 4752354.027282652445 0 0
1551493.768786918139 -3941656.349610600621 4752353.991280454211 0 0
1551493.770526397042 -3941656.349662791472 4752353.990050516091 0 0
1551493.740033946233 -3941656.314704439137 4752353.967152252793 0 0
1551493.790803088807 -3941656.310395416804 4752354.019452470355 0 0
1551493.832798313117 -3941656.270114135463 4752354.039020227268 0 0
1551493.827777117724 -3941656.208009136375 4752354.027599663474 0 0
1551493.820595781552 -3941656.245908480603 4752353.998999945819 0 0
1551493.840709414566 -3941656.282586602028 4752354.027334215119 0 0
1551493.802303323289 -3941656.311834391207 4752353.950291533954 0 0
1551493.800738280406 -3941656.350418138783 4752353.991823977791 0 0
1551493.819435757585 -3941656.431886482518 4752353.958292060532 0 0
1551493.819787854329 -3941656.432781003881 4752353.959043675102 0 0
1551493.854262117529 -3941656.486637251917 4752353.988019294105 0 0
1551493.843362377724 -3941656.443144474644 4752353.962890397757 0 0
1551493.953762215329 -3941656.437892621383 4752354.036211045459 0 0
1551494.020858209813 -3941656.524061534088 4752354.042419067584 0 0
1551493.979187001707 -3941656.448765012436 4752353.960903054103 0 0
1551494.020054811845 -3941656.588065931108 4752353.984159968793 0 0
1551493.998211866943 -3941656.558585486375 4752353.950122102164 0 0
1551493.953826360172 -3941656.637313375250 4752353.899164401926 0 0
1551493.945555939339 -3941656.652450266294 4752353.889375693165 0 0
1551493.956545667490 -3941656.713003759738 4752353.901138131507 0 0
1551493.936076659011 -3941656.678325749934 4752353.871131912805 0 0
1551493.953599099303 -3941656.662421611138 4752353.886734880507 0 0
1551493.949804667151 -3941656.560361281503 4752353.830303407274 0 0
1551493.964789586142 -3941656.585743652191 4752353.807209325023 0 0
1551493.951610147953 -3941656.603701705113 4752353.799001068808 0 0
1551493.959777156124 -3941656.694110750686 4752353.782092548907 0 0
1551493.937355356524 -3941656.661820331588 4752353.750752548687 0 0
1551493.922179574147 -3941656.685517344624 4752353.737496769987 0 0
1551493.942371890182 -3941656.720183887053 4752353.767706267536 0 0
1551493.923290359788 -3941656.691481207963 4752353.732696105726 0 0
1551493.949626281392 -3941656.681663509924 4752353.730425313115 0 0
1551493.983290947974 -3941656.663033419754 4752353.734857002273 0 0
1551494.035735191079 -3941656.695693309885 4752353.757937809452 0 0
1551494.057544242125 -3941656.734030390158 4752353.717500180937 0 0
1551494.062095717527 -3941656.778090034612 4752353.679725275375 0 0
1551494.042639230378 -3941656.796781769954 4752353.622867316939 0 0
1551494.047203349415 -3941656.849462176673 4752353.668782990426 0 0
1551494.065744534135 -3941656.873116254341 4752353.668602888472 0 0
1551494.059915273916 -3941656.904019826092 4752353.647593271919 0 0
1551494.095165014965 -3941656.975908420980 4752353.677181228995 0 0
1551494.139697335893 -3941657.011505177710 4752353.664171112701 0 0
1551494.209975691279 -3941657.123313459568 4752353.740029596724 0 0
1551494.198771371040 -3941657.096295524854 4752353.708721945994 0 0
1551494.256126891822 -3941657.187505958136 4752353.745405502617 0 0
1551494.223725770600 -3941657.135113755707 4752353.687481261790 0 0
1551494.267505692318 -3941657.251063692849 4752353.771423886530 0 0
1551494.281349414261 -3941657.280382831581 4752353.799101230688 0 0
1551494.328952394659 -3941657.389847782440 4752353.890563033521 0 0
1551494.327583892504 -3941657.398249711841 4752353.885865775868 0 0
1551494.311869876692 -3941657.363773339894 4752353.852370505221 0 0
1551494.290841060225 -3941657.399613160174 4752353.909726412967 0 0
1551494.267678452190 -3941657.360362060368 4752353.884677546099 0 0
1551494.321524740662 -3941657.333799373824 4752353.870883654803 0 0
1551494.336681336630 -3941657.320978295524 4752353.874074440449 0 0
1551494.392513384344 -3941657.377483056393 4752354.080657725222 0 0
1551494.370564774843 -3941657.338834599592 4752354.054370348342 0 0
1551494.382539499085 -3941657.329730989877 4752354.057072794065 0 0
1551494.375116018578 -3941657.304616657086 4752354.038656193763 0 0
1551494.395553894574 -3941657.282092779409 4752354.022954008542 0 0
1551494.356925110100 -3941657.211827808060 4752353.962941576727 0 0
1551494.384601640981 -3941657.200933917891 4752353.962941576727 0 0
1551494.408413878176 -3941657.234295985196 4752353.992947792634 0 0
1551494.450921414187 -3941657.240524860565 4752354.040347134694 0 0
1551494.413587095914 -3941657.163329903502 4752353.986073410138 0 0
1551494.411277747247 -3941657.054166689515 4752353.943096387200 0 0
1551494.433630869957 -3941657.064265130553 4752353.992649857886 0 0
1551494.414258856326 -3941657.027984334156 4752353.963419736363 0 0
1551494.449395325966 -3941657.091834654566 4752354.028688697144 0 0
1551494.388663470978 -3941656.945496639702 4752353.904943034984 0 0
1551494.375670359936 -3941656.937029620167 4752353.920906845480 0 0
1551494.424067295156 -3941656.979802083224 4752353.996330778114 0 0
1551494.384084720863 -3941656.907641105354 4752353.939214102924 0 0
1551494.440728070680 -3941656.963989405427 4752354.003251461312 0 0
1551494.400733265560 -3941656.884689957835 4752353.952123677358 0 0
1551494.445412919158 -3941656.937139428686 4752354.023852842860 0 0
1551494.395855409792 -3941656.863376354333 4752353.970266355202 0 0
1551494.372534554452 -3941656.876231562346 4752353.967238035984 0 0
1551494.316893524956 -3941656.922107495833 4752353.948484171182 0 0
1551494.302028877661 -3941657.042214456014 4752353.983782846481 0 0
1551494.317067163764 -3941657.108073089737 4752354.058210794814 0 0
1551494.347414258868 -3941657.043685085140 4752354.102536015213 0 0
1551494.319043738535 -3941656.946461018175 4752354.060538877733 0 0
1551494.363772240933 -3941656.906318922061 4752354.088953640312 0 0
1551494.349134339485 -3941656.857709337026 4752354.055822982453 0 0
1551494.360558286775 -3941656.831068565603 4752354.073543445207 0 0
1551494.167535769986 -3941656.833257649560 4752353.935075737536 0 0
1551494.142472156789 -3941656.762054328341 4752353.933997408487 0 0
1551494.190448104404 -3941656.731077255681 4752354.009254786186 0 0
1551494.149428000441 -3941656.661656909157 4752353.949353541248 0 0
1551494.155188037548 -3941656.648378117476 4752353.958313275129 0 0
1551494.136226242641 -3941656.726822210010 4752353.965049151331 0 0
1551494.000678594224 -3941656.825372535270 4752353.862867586315 0 0
1551493.985334246419 -3941656.832386590075 4752353.863615830429 0 0
1551494.011047800537 -3941656.867117704824 4752353.890058680438 0 0
1551494.024645888247 -3941656.846912601031 4752353.902295212261 0 0
1551494.026598974131 -3941656.846143837087 4752353.902295212261 0 0
1551494.013827425893 -3941656.808435993735 4752353.872288994491 0 0
1551494.003149582772 -3941656.851936075836 4752353.841578076594 0 0
1551493.984369994374 -3941656.913824324030 4752353.801562631503 0 0
1551493.957534286194 -3941657.107536339201 4752353.843792075291 0 0
1551493.943437407026 -3941657.128667690791 4752353.830405521207 0 0
1551493.906567234546 -3941657.099600374233 4752353.801819966175 0 0
1551493.949295680039 -3941657.169494632632 4752353.859744463116 0 0
1551493.910235008458 -3941657.099399657920 4752353.799732030369 0 0
1551493.931252460228 -3941657.203011868522 4752353.879826896824 0 0
1551493.884850635193 -3941657.186490292195 4752353.859236865304 0 0
1551493.897526213666 -3941657.289555504452 4752353.912069410086 0 0
1551493.843461913522 -3941657.234308021143 4752353.843802765012 0 0
1551493.794624824775 -3941657.273291325662 4752353.828521268442 0 0
1551493.784493605606 -3941657.303526055068 4752353.871113038622 0 0
1551493.749096331419 -3941657.266871950589 4752353.848015719093 0 0
1551493.802692573518 -3941657.362328617368 4752354.014241345227 0 0
1551493.785529592540 -3941657.312351890840 4752354.063534116372 0 0
1551493.744618713157 -3941657.236229543108 4752354.008063387126 0 0
1551493.768766423920 -3941657.310093948618 4752354.067993583158 0 0
1551493.749450233299 -3941657.285819379147 4752354.024203070439 0 0
1551493.699914666358 -3941657.322617955506 4752354.016374357976 0 0
1551493.675681065070 -3941657.303262895439 4752353.972933584824 0 0
1551493.652886946686 -3941657.406472603790 4752353.995301705785 0 0
1551493.630221027182 -3941657.395781134255 4752353.986359228380 0 0
1551493.629067389527 -3941657.450719921384 4752354.002898432314 0 0
1551493.642243361566 -3941657.473807516973 4752354.045861084945 0 0
1551493.662511687260 -3941657.496097005904 4752354.084357811138 0 0
1551493.621573678218 -3941657.426740977913 4752354.024345378391 0 0
1551493.648011033423 -3941657.534061172046 4752354.127769477665 0 0
1551493.635210920591 -3941657.581187527627 4752354.091457456350 0 0
1551493.612242081668 -3941657.553333277348 4752354.056640071794 0 0
1551493.648033291334 -3941657.712884948123 4752354.145468271337 0 0
1551493.606786947930 -3941657.664877141826 4752354.101036624052 0 0
1551493.649532252690 -3941657.748012687080 4752354.148149458691 0 0
1551493.599887737073 -3941657.680910080206 4752354.090108118020 0 0
1551493.669511098880 -3941657.732826342341 4752354.154182069935 0 0
1551493.628101080423 -3941657.656139796134 4752354.101532921195 0 0
1551493.667921614135 -3941657.679128455464 4752354.160267155617 0 0
1551493.716727782506 -3941657.775459863245 4752354.238354482688 0 0
1551493.673925152747 -3941657.709281403571 4752354.175324041396 0 0
1551493.719257578021 -3941657.828782899771 4752354.272963125259 0 0
1551493.727854616474 -3941657.873023108579 4752354.288242726587 0 0
1551493.734138593543 -3941657.885756456293 4752354.275229232386 0 0
1551493.694243883481 -3941657.816699311137 4752354.214279995300 0 0
1551493.732634666609 -3941657.806254669093 4752354.275129499845 0 0
1551493.723149288911 -3941657.741499654017 4752354.266340694390 0 0
1551493.744346047286 -3941657.772361021023 4752354.351042583585 0 0
1551493.725187872304 -3941657.785442469642 4752354.364283231087 0 0
1551493.724954699632 -3941657.829324448947 4752354.392514558509 0 0
1551493.717909835977 -3941657.831009110436 4752354.394345262088 0 0
1551493.717745098984 -3941657.831002218649 4752354.394466231577 0 0
1551493.748752913205 -3941657.841183127835 4752354.440659453161 0 0
1551493.726970092161 -3941657.742458253168 4752354.395897845738 0 0
1551493.733347676229 -3941657.663589243311 4752354.367156032473 0 0
1551493.766169775510 -3941657.660578971263 4752354.362702506594 0 0
1551493.779185332125 -3941657.741745747160 4752354.448334574699 0 0
1551493.758710424183 -3941657.713596274145 4752354.412207765505 0 0
1551493.804664591094 -3941657.801319223829 4752354.454614149407 0 0
1551493.760016458342 -3941657.738813775592 4752354.390592986718 0 0
1551493.774161126930 -3941657.765641968232 4752354.365167331882 0 0
1551493.897131566657 -3941657.732134644873 4752354.351390804164 0 0
1551493.923623585375 -3941657.753818315919 4752354.319515356794 0 0
1551493.933333704714 -3941657.831458130851 4752354.354766485281 0 0
1551493.950655452209 -3941657.870743377600 4752354.354432341643 0 0
1551493.965213686228 -3941657.866710961796 4752354.352901553735 0 0
1551494.065375733422 -3941657.914027707651 4752354.410776888952 0 0
1551494.047784569440 -3941657.887371609919 4752354.373334511183 0 0
1551494.026568790432 -3941657.860125120264 4752354.338405050337 0 0
1551494.067829113221 -3941657.965634210035 4752354.367817077786 0 0
1551494.027275396278 -3941657.909390122630 4752354.296525361016 0 0
1551494.077388665639 -3941658.039523288142 4752354.370409478433 0 0
1551494.057388216490 -3941657.978479507379 4752354.295054126531 0 0
1551494.058627785416 -3941657.937369816471 4752354.287017802708 0 0
1551494.027513602516 -3941657.880750128068 4752354.253475326113 0 0
1551494.022867482621 -3941657.846736545209 4752354.213920623995 0 0
1551494.029110001633 -3941657.855602542404 4752354.203545659781 0 0
1551494.026899531018 -3941657.849986718502 4752354.187652634457 0 0
1551493.970659291837 -3941657.726727827918 4752354.064695708454 0 0
1551493.970715920441 -3941657.724601299502 4752354.068236966617 0 0
1551494.024181645596 -3941657.763593323529 4752354.149126672186 0 0
1551494.019968344364 -3941657.712073256262 4752354.125981452875 0 0
1551494.057774554705 -3941657.589700637385 4752354.215147487819 0 0
1551494.049174256856 -3941657.565778243821 4752354.238817932084 0 0
1551494.041833021678 -3941657.576400325634 4752354.231491707265 0 0
1551494.010629793862 -3941657.544795141090 4752354.203428535722 0 0
1551494.053135915194 -3941657.604279905092 4752354.270989121869 0 0
1551494.016195676755 -3941657.523463224061 4752354.219198108651 0 0
1551494.066014379496 -3941657.571869045962 4752354.293133996427 0 0
1551494.083290036069 -3941657.497018036433 4752354.341087955050 0 0
1551494.175077677472 -3941657.551590804942 4752354.484362756833 0 0
1551494.270156834507 -3941657.515478773974 4752354.672754359432 0 0
1551494.239942667307 -3941657.423883252311 4752354.644132564776 0 0
1551494.318993193330 -3941657.545177289285 4752354.774628200568 0 0
1551494.309809554368 -3941657.458574034739 4752354.787337600254 0 0
1551494.385577626526 -3941657.499753312673 4752354.916774107143 0 0
1551494.481873904821 -3941657.483596394304 4752355.091926750727 0 0
1551494.518899446586 -3941657.405570256524 4752355.153422725387 0 0
1551494.516159241088 -3941657.322658079676 4752355.157383533195 0 0
1551494.516575903166 -3941657.324228079058 4752355.154463940300 0 0
1551494.513851907337 -3941657.364765402395 4752355.215940804221 0 0
1551494.500708726700 -3941657.384730652906 4752355.244877567515 0 0
1551494.541024189675 -3941657.451999041252 4752355.306735939346 0 0
1551494.498085275292 -3941657.370472598821 4752355.256819465198 0 0
1551494.542880804278 -3941657.425028536934 4752355.328353763558 0 0
1551494.553108821390 -3941657.382650422398 4752355.358277484775 0 0
1551494.555694076000 -3941657.352970045060 4752355.383314527571 0 0
1551494.510743862949 -3941657.277003409341 4752355.330375397578 0 0
1551494.513824315742 -3941657.336219488177 4752355.344837936573 0 0
1551494.485034939600 -3941657.313998179510 4752355.306621618569 0 0
1551494.439415106317 -3941657.422688532621 4752355.306867467239 0 0
1551494.376618896844 -3941657.550109701697 4752355.282431613654 0 0
1551494.371137116104 -3941657.677596907131 4752355.307786402293 0 0
1551494.310038370546 -3941657.622850500979 4752355.242275484838 0 0
1551494.338305511279 -3941657.682147549000 4752355.314684048295 0 0
1551494.382448056480 -3941657.579045028891 4752355.381303475238 0 0
1551494.402188380947 -3941657.424940700177 4752355.441050188616 0 0
1551494.417526229983 -3941657.411555359140 4752355.455778667703 0 0
1551494.390273605008 -3941657.322152384557 4752355.397421298549 0 0
1551494.404155399650 -3941657.362853791099 4752355.424563279375 0 0
1551494.360302551882 -3941657.300506212749 4752355.357979067601 0 0
1551494.380438212538 -3941657.408976982813 4752355.418999363668 0 0
1551494.335755617591 -3941657.497279045638 4752355.404383721761 0 0
1551494.335989217507 -3941657.557786570396 4752355.417891095392 0 0
1551494.266701766057 -3941657.530676821247 4752355.329578300007 0 0
1551494.222338780062 -3941657.540765418205 4752355.340160406195 0 0
1551494.253864351427 -3941657.529929889366 4752355.403756284155 0 0
1551494.256619182648 -3941657.428320341744 4752355.419863839634 0 0
1551494.306607843377 -3941657.486523264553 4752355.486129886471 0 0
1551494.289140580455 -3941657.492535007652 4752355.488584430888 0 0
1551494.272623458412 -3941657.518786929548 4752355.470569735393 0 0
1551494.240123127121 -3941657.498915655073 4752355.432266408578 0 0
1551494.223370399326 -3941657.591942087281 4752355.426689911634 0 0
1551494.189511583420 -3941657.635234520771 4752355.403003033251 0 0
1551494.123554017395 -3941657.595869942103 4752355.326625525020 0 0
1551494.123764985474 -3941657.767723926809 4752355.375592613593 0 0
1551494.104386304272 -3941657.837792132050 4752355.389585226774 0 0
1551494.077321800869 -3941657.816400345881 4752355.358163795434 0 0
1551494.055234716041 -3941657.910941807553 4752355.352539507672 0 0
1551494.042542187497 -3941657.924419739284 4752355.344736407511 0 0
1551494.021749862004 -3941657.889976750128 4752355.314663516358 0 0
1551494.029029156780 -3941657.924758532085 4752355.348982634023 0 0
1551493.993223164463 -3941657.849704427179 4752355.289653803222 0 0
1551494.040931287222 -3941657.910320807248 4752355.353371962905 0 0
1551494.005941157229 -3941657.789001501165 4752355.339020438492 0 0
1551494.074357092613 -3941657.825561748818 4752355.417430816218 0 0
1551494.061054945225 -3941657.839465509169 4752355.409952478483 0 0
1551494.009648904204 -3941657.787095733918 4752355.339352282695 0 0
1551494.050029186998 -3941657.857924369629 4752355.398205580190 0 0
1551494.005203061970 -3941657.926538649015 4752355.355636783876 0 0
1551493.972139861900 -3941657.905611263588 4752355.319025209174 0 0
1551493.987882241607 -3941657.950700554997 4752355.340633362532 0 0
1551493.892943357583 -3941657.944241028745 4752355.247319447808 0 0
1551493.929801045917 -3941658.020165656228 4752355.302787370048 0 0
1551493.875335364603 -3941657.967494803946 4752355.234685671516 0 0
1551493.921173211187 -3941657.941113281529 4752355.234441760927 0 0
1551493.936404719483 -3941657.890113270376 4752355.278633401729 0 0
1551493.952039542375 -3941658.036867718678 4752355.281266935170 0 0
1551493.935575334588 -3941658.059862556402 4752355.268495516852 0 0
1551493.907658281270 -3941658.080165796913 4752355.228314430453 0 0
1551493.887797196861 -3941658.047627975233 4752355.199907043949 0 0
1551493.934686914086 -3941658.148246138822 4752355.285542655736 0 0
1551493.959867133759 -3941658.185465669725 4752355.293847534806 0 0
1551494.079702874646 -3941658.297902431339 4752355.308077764697 0 0
1551494.162378612440 -3941658.316648631822 4752355.278863255866 0 0
1551494.229289609939 -3941658.424027767032 4752355.354689547792 0 0
1551494.253877005307 -3941658.467882291880 4752355.357931585982 0 0
1551494.302470428869 -3941658.560349659529 4752355.405704271980 0 0
1551494.281414309284 -3941658.516843854450 4752355.314328442328 0 0
1551494.313525135862 -3941658.586555899121 4752355.311632580124 0 0
1551494.357885020552 -3941658.697194420267 4752355.386445203796 0 0
1551494.347064715577 -3941658.741051750258 4752355.376138639636 0 0
1551494.376400777837 -3941658.836399829481 4752355.370651607402 0 0
1551494.404234271729 -3941658.881273560226 4752355.368612620048 0 0
1551494.393556896597 -3941658.906025175471 4752355.356966948137 0 0
1551494.353049203055 -3941658.836885936093 4752355.296636368148 0 0
1551494.414924271638 -3941658.911345530301 4752355.342791354284 0 0
1551494.428155472502 -3941658.903036906384 4752355.348903542385 0 0
1551494.408010451589 -3941658.868421227206 4752355.318808699027 0 0
1551494.461132469587 -3941658.905999413691 4752355.330343575217 0 0
1551494.423017170280 -3941658.834298422094 4752355.276078692637 0 0
1551494.443596755387 -3941658.831158799119 4752355.271991689689 0 0
1551494.491612252081 -3941658.905502798501 4752355.326722390950 0 0
1551494.494576406199 -3941658.917027549352 4752355.315350156277 0 0
1551494.470078319311 -3941658.904182441998 4752355.270237700082 0 0
1551494.494415899273 -3941658.948435788974 4752355.291062743403 0 0
1551494.502193865366 -3941658.964320995845 4752355.274870228022 0 0
1551494.466496670619 -3941658.900785928592 4752355.207240995951 0 0
1551494.507194183068 -3941658.978260079399 4752355.261950541288 0 0
1551494.509320737096 -3941658.986302359961 4752355.255032628775 0 0
1551494.564678719034 -3941659.038519965950 4752355.277931768447 0 0
1551494.596492775250 -3941659.015422192402 4752355.284774444066 0 0
1551494.580662779044 -3941658.938988500275 4752355.203291041777 0 0
1551494.618753850460 -3941658.973373332061 4752355.228942997754 0 0
1551494.594730340410 -3941658.900713315234 4752355.165855310857 0 0
1551494.611333015375 -3941658.885916173924 4752355.101074193604 0 0
1551494.626770168077 -3941658.876824443694 4752355.042383905500 0 0
1551494.670218561077 -3941658.952483332716 4752355.096378476359 0 0
1551494.691345115192 -3941658.956707500387 4752355.080964315683 0 0
1551494.640881324885 -3941658.885990434792 4752355.029327404685 0 0
1551494.753135267179 -3941659.004413599614 4752355.154341360554 0 0
1551494.734423307935 -3941658.969481294043 4752355.123610439710 0 0
1551494.781818131683 -3941658.986927230377 4752355.164711103775 0 0
1551494.834822014906 -3941658.949537115172 4752355.179767461494 0 0
1551494.818766107317 -3941658.872416239697 4752355.116340292618 0 0
1551494.872044997523 -3941658.936754951254 4752355.176679686643 0 0
1551494.884934752947 -3941658.944180881605 4752355.192149893381 0 0
1551494.921608747449 -3941658.973576274700 4752355.239576768130 0 0
1551494.927227548091 -3941658.949777998030 4752355.200616006739 0 0
1551494.891569622559 -3941658.858612407465 4752355.104103757069 0 0
1551494.927169992356 -3941658.901869099122 4752355.146390812472 0 0
1551494.947422775207 -3941658.918866549619 4752355.166031205095 0 0
1551495.016713843215 -3941658.982767040376 4752355.223702995107 0 0
1551495.024199659005 -3941658.976232482586 4752355.229749974795 0 0
1551494.983673881972 -3941658.906423572451 4752355.170227980241 0 0
1551495.043420007452 -3941658.961368534248 4752355.235587988049 0 0
1551495.054258330958 -3941658.950112114195 4752355.240958403796 0 0
1551495.014102961170 -3941658.879958114587 4752355.181771458127 0 0
1551495.062729764730 -3941658.946489175782 4752355.241444480605 0 0
1551495.062747047748 -3941658.946484895889 4752355.241440226324 0 0
1551495.056083861971 -3941658.926931168418 4752355.245292915031 0 0
1551495.111174097750 -3941658.999890349340 4752355.314247914590 0 0
1551495.090661520604 -3941658.963907542173 4752355.286464985460 0 0
1551495.113402557559 -3941658.998245758936 4752355.315537161194 0 0
